# .PCD v0.7 - Point Cloud Data file format
VERSION 0.7
FIELDS x y z
SIZE 4 4 4
TYPE F F F
COUNT 1 1 1
WIDTH 1357
HEIGHT 1
VIEWPOINT 0 0 0 1 0 0 0
POINTS 1357
DATA ascii
0.2150801 -0.11498789 0.66043997
0.22404379 -0.1155069 0.6601283
0.3063603 -0.11496065 0.66719753
0.31523868 -0.11490604 0.66688067
0.32477233 -0.11479791 0.66653973
0.33481273 -0.11544745 0.6661914
0.34477723 -0.11532645 0.66583472
0.35479763 -0.11526451 0.66547722
0.36480749 -0.11520264 0.66511995
0.37480646 -0.11514083 0.66476297
0.38185859 -0.11509725 0.66451156
0.078606658 -0.10500918 0.66516238
0.085176833 -0.10497216 0.66492796
0.094725721 -0.10491838 0.66458732
0.10486057 -0.1048613 0.66422576
0.11484525 -0.10508743 0.66387326
0.12509899 -0.1053471 0.66351187
0.13520114 -0.10528985 0.66315138
0.14469901 -0.10523608 0.66281241
0.1547797 -0.10517895 0.66245282
0.16484962 -0.1051219 0.6620934
0.17490846 -0.10506492 0.66173458
0.1849566 -0.10500801 0.66137606
0.19499366 -0.10495114 0.66101807
0.20502008 -0.10489436 0.66066015
0.21503547 -0.1048376 0.66030282
0.22215678 -0.10571942 0.66006148
0.30629686 -0.10470684 0.66705948
0.31517348 -0.10465714 0.6667428
0.3252888 -0.10467476 0.66638297
0.33526695 -0.10514677 0.66603428
0.34491724 -0.10494804 0.6656878
0.35490665 -0.105175 0.6653356
0.36487445 -0.10486631 0.66497624
0.37484899 -0.10503031 0.66462326
0.38177985 -0.1048848 0.66437453
0.078590192 -0.094788402 0.66502315
0.085159011 -0.094754986 0.66478884
0.094705909 -0.094706453 0.66444826
0.10483865 -0.094654925 0.66408682
0.11510138 -0.094920352 0.66372502
0.12507284 -0.0951517 0.66337323
0.13517293 -0.09510003 0.66301292
0.14488184 -0.094906636 0.66266459
0.15493016 -0.095137119 0.66231018
0.16481526 -0.094948359 0.6619556
0.17487201 -0.094896883 0.66159672
0.18491809 -0.094845474 0.66123855
0.1948491 -0.094915643 0.66088581
0.20497996 -0.095339857 0.66053081
0.21466041 -0.095494799 0.6601882
0.22089529 -0.098837256 0.66001213
0.30623731 -0.095060125 0.66692978
0.31511214 -0.095014997 0.6666131
0.32516026 -0.094963938 0.66625464
0.33519778 -0.094912872 0.66589653
0.34522426 -0.09486191 0.66553915
0.35524017 -0.094810992 0.66518146
0.3652451 -0.094760127 0.66482478
0.37523961 -0.094709307 0.66446793
0.3817012 -0.094676442 0.66423774
0.078574724 -0.08517281 0.66489214
0.085142247 -0.085142791 0.66465789
0.094687261 -0.08509919 0.66431743
0.10481802 -0.085052893 0.66395617
0.11493798 -0.085006692 0.66359532
0.12504677 -0.08496049 0.66323471
0.13514473 -0.084914349 0.66287458
0.14523156 -0.08486826 0.66251487
0.15530764 -0.084822245 0.66215533
0.16478091 -0.08477895 0.66181761
0.17483562 -0.084733017 0.66145909
0.18487962 -0.084687114 0.66110086
0.19502474 -0.084786005 0.66074103
0.20493735 -0.085192323 0.6603936
0.21298137 -0.08573959 0.66011477
0.30607453 -0.085230641 0.66680092
0.31505084 -0.08537665 0.66648334
0.32509705 -0.08533074 0.66612506
0.33513263 -0.085284896 0.66576707
0.34515721 -0.085239083 0.6654098
0.35517126 -0.085193343 0.66505229
0.36517426 -0.085147649 0.66469586
0.37516692 -0.085101962 0.66433907
0.38162717 -0.08507248 0.66410893
0.078558266 -0.074960433 0.66475296
0.085124426 -0.074934043 0.66451883
0.094667464 -0.074895658 0.66417861
0.10479613 -0.074854933 0.66381735
0.11491398 -0.074814238 0.66345662
0.12502217 -0.075372674 0.66310436
0.1351182 -0.075331748 0.6627444
0.14520307 -0.075290881 0.66238481
0.15527715 -0.075250044 0.66202545
0.16474864 -0.075211659 0.66168791
0.17480133 -0.075170927 0.66132939
0.18484339 -0.075130224 0.66097134
0.19487441 -0.075089544 0.66061378
0.20489475 -0.075048961 0.66025621
0.21103081 -0.075971186 0.66005045
0.30621037 -0.075017273 0.66665632
0.31498578 -0.075140029 0.6663456
0.32502982 -0.075099632 0.66598767
0.33506334 -0.075059295 0.66562992
0.34508595 -0.075018987 0.6652723
0.35509789 -0.074978732 0.66491532
0.36509901 -0.074938536 0.66455853
0.37508953 -0.07489837 0.66420245
0.38154861 -0.074872367 0.66397208
0.078541853 -0.064752243 0.66461396
0.085106619 -0.064729437 0.66437989
0.094647668 -0.064696297 0.66403967
0.10477421 -0.064661123 0.66367877
0.11488998 -0.064625993 0.66331798
0.12499609 -0.065189794 0.66296607
0.13509002 -0.065154418 0.66260606
0.14517277 -0.065119065 0.66224653
0.15524481 -0.065083764 0.66188759
0.16471431 -0.065050572 0.66155016
0.17476496 -0.065015331 0.6611917
0.18480492 -0.064980149 0.66083372
0.19483387 -0.064944968 0.66047615
0.20422651 -0.065361649 0.66014779
0.30605108 -0.064938352 0.66652405
0.31492063 -0.064907536 0.66620767
0.32496274 -0.064872667 0.66585022
0.33499429 -0.064837821 0.66549248
0.34501481 -0.064803042 0.66513526
0.3550247 -0.06476824 0.66477859
0.36502379 -0.064733528 0.66442192
0.37501234 -0.06469883 0.66406572
0.38147008 -0.064676411 0.66383547
0.07852637 -0.055148482 0.66448301
0.085089885 -0.055129055 0.66424906
0.095224813 -0.055099081 0.66388786
0.10534894 -0.055069156 0.66352701
0.11486742 -0.055040982 0.66318774
0.12497001 -0.055011094 0.66282773
0.13506183 -0.054981235 0.66246808
0.14514253 -0.054951414 0.6621086
0.15521246 -0.054921631 0.66174978
0.16499256 -0.05475219 0.66139919
0.1750071 -0.055003591 0.66104627
0.18476655 -0.054834209 0.66069639
0.1947934 -0.054804549 0.66033864
0.20239618 -0.05550145 0.66007787
0.3059915 -0.05530712 0.66639435
0.31485942 -0.05528089 0.66607827
0.32489955 -0.055251189 0.66572052
0.33492923 -0.05522152 0.66536331
0.34494781 -0.055191882 0.66500598
0.35495585 -0.055162277 0.66464919
0.36495295 -0.055132702 0.66429311
0.37493959 -0.055103153 0.66393697
0.38139614 -0.055084053 0.66370684
0.078509942 -0.044948671 0.66434401
0.08507207 -0.044932842 0.66411018
0.095204927 -0.044908412 0.66374916
0.10532695 -0.044884011 0.66338843
0.11484345 -0.044861052 0.66304934
0.12494391 -0.044836719 0.66268927
0.13503367 -0.044812389 0.66232991
0.14500763 -0.044909365 0.66197616
0.15518205 -0.045361184 0.66162002
0.16523892 -0.045336604 0.6612615
0.17528515 -0.045312066 0.66090375
0.18473037 -0.045288991 0.66056687
0.19468912 -0.045323402 0.66021299
0.20089464 -0.047990866 0.66002858
0.3059282 -0.04507808 0.66625673
0.31479439 -0.045056701 0.66594088
0.3248325 -0.045032494 0.66558307
0.33485997 -0.045008313 0.66522574
0.34487659 -0.044984162 0.66486847
0.35488263 -0.044960037 0.66451222
0.36487788 -0.044935964 0.66415596
0.37486246 -0.044911873 0.66380042
0.38131756 -0.044896308 0.66357011
0.078493543 -0.034753043 0.66420513
0.085054293 -0.034740813 0.66397142
0.095185027 -0.034721926 0.66361034
0.10530495 -0.034703065 0.66324997
0.11481946 -0.034685321 0.66291094
0.12491786 -0.034666505 0.66255116
0.1350055 -0.034647685 0.66219175
0.14519453 -0.034774005 0.66183072
0.1551497 -0.035207342 0.66148233
0.16520452 -0.035188269 0.66112381
0.1752487 -0.035169229 0.66076618
0.18503603 -0.034995858 0.66041517
0.19349332 -0.035905782 0.66012669
0.30586508 -0.034853179 0.66611922
0.31472939 -0.03483665 0.66580343
0.32476544 -0.034817953 0.66544551
0.33479097 -0.034799259 0.66508865
0.34480557 -0.034780588 0.66473186
0.35480955 -0.034761939 0.66437525
0.36480266 -0.034743316 0.66401923
0.37478524 -0.034724697 0.66366357
0.38123918 -0.034712676 0.66343373
0.07847809 -0.025161082 0.66407448
0.085037567 -0.025152232 0.66384077
0.095166281 -0.025138561 0.66348004
0.10528427 -0.025124907 0.66311949
0.11479692 -0.025112074 0.66278064
0.12489334 -0.025098436 0.66242123
0.13497902 -0.025084827 0.66206193
0.1450536 -0.025071234 0.66170287
0.15511742 -0.025057649 0.66134429
0.16517015 -0.02504408 0.66098636
0.1752122 -0.025030533 0.66062891
0.18524323 -0.025016986 0.66027129
0.19195402 -0.026124874 0.66004765
0.30580559 -0.025233645 0.66598976
0.31512305 -0.025118096 0.66565615
0.32513213 -0.025316779 0.66530281
0.33480707 -0.02512989 0.66495562
0.3448053 -0.025240161 0.66460121
0.35474074 -0.025167601 0.66424638
0.364732 -0.025154108 0.6638906
0.37509432 -0.025009971 0.66351968
0.38147759 -0.0256042 0.66330057
0.078461684 -0.014973809 0.66393554
0.085019797 -0.014968541 0.66370207
0.095146447 -0.01496041 0.66334146
0.10526229 -0.014952281 0.66298115
0.11477297 -0.014944643 0.66264236
0.12486733 -0.014936534 0.66228306
0.13495092 -0.014928435 0.66192383
0.14502338 -0.014920349 0.66156512
0.15508516 -0.014912267 0.66120678
0.1651358 -0.014904195 0.66084898
0.1751758 -0.014896128 0.66049135
0.18448836 -0.015251174 0.66016436
0.30574241 -0.015017027 0.66585183
0.3151935 -0.015009433 0.66551536
0.32522523 -0.015001383 0.66515821
0.335246 -0.014993333 0.66480136
0.34525621 -0.014985288 0.66444492
0.35525545 -0.014977257 0.66408879
0.36524421 -0.014969238 0.66373307
0.37522212 -0.014961222 0.66337752
0.38167319 -0.01495604 0.66314787
0.078445286 -0.0047907089 0.6637969
0.085002027 -0.0047890255 0.66356337
0.095126577 -0.0047864225 0.66320294
0.10524033 -0.0047838241 0.66284281
0.11474904 -0.0047813808 0.6625042
0.12484128 -0.0047787861 0.66214484
0.13492277 -0.0047761956 0.6617859
0.1449932 -0.0047736089 0.66142732
0.15505284 -0.0047710231 0.66106898
0.16510144 -0.0047684405 0.66071129
0.17513937 -0.0047658612 0.66035396
0.18257464 -0.0053594052 0.66009736
0.30567932 -0.0048045479 0.66571462
0.31512851 -0.0048021195 0.66537815
0.32515821 -0.0047995425 0.66502082
0.33517691 -0.0047969674 0.66466427
0.34518501 -0.0047943955 0.66430795
0.35518235 -0.0047918269 0.66395181
0.36516908 -0.0047892611 0.66359645
0.37514487 -0.0047866972 0.66324115
0.38159469 -0.0047850385 0.66301149
0.078429863 0.0047894581 0.66366631
0.084985338 0.0047877743 0.6634329
0.095107883 0.0047851731 0.66307271
0.10521965 0.0047825766 0.66271257
0.11472651 0.0047801342 0.66237414
0.12481676 0.0047775414 0.66201496
0.13489629 0.0047749523 0.66165602
0.14496477 0.0047723651 0.66129762
0.15502247 0.0047697825 0.66093981
0.16506916 0.0047672 0.66058201
0.17510509 0.004764623 0.66022485
0.18106453 0.0028688458 0.66003859
0.30561993 0.0048033074 0.6655854
0.31506726 0.0048008803 0.66524893
0.32509509 0.0047983057 0.6648919
0.33511186 0.0047957301 0.66453558
0.34511817 0.0047931611 0.66417897
0.35511348 0.0047905929 0.66382325
0.36509833 0.0047880281 0.66346771
0.37507224 0.0047854665 0.66311276
0.3815209 0.0047838092 0.66288316
0.078413479 0.014964217 0.66352761
0.084967583 0.014958956 0.66329437
0.095088042 0.014950829 0.66293412
0.10519772 0.014942714 0.66257441
0.11470258 0.014935086 0.66223603
0.12479074 0.014926991 0.66187692
0.13486825 0.0149189 0.66151845
0.14493462 0.014910826 0.66116029
0.15499023 0.014902752 0.66080213
0.1650348 0.014894693 0.6604445
0.17405158 0.014411283 0.66013014
0.3055568 0.015007524 0.66544807
0.31500238 0.014999942 0.66511154
0.32502806 0.014991894 0.66475481
0.33504277 0.014983855 0.66439831
0.34504709 0.014975823 0.66404223
0.35504043 0.014967804 0.66368663
0.36502323 0.014959793 0.66333151
0.37499517 0.014951788 0.66297638
0.38144243 0.014946612 0.66274697
0.078397088 0.025134804 0.66338915
0.084949836 0.025125971 0.66315585
0.095068194 0.025112335 0.6627959
0.10517579 0.025098704 0.66243607
0.11467869 0.025085893 0.66209805
0.12476477 0.025072295 0.66173929
0.13484021 0.025058715 0.66138065
0.14490446 0.025045143 0.66102242
0.15495804 0.025031589 0.6606645
0.16500051 0.025018049 0.66030729
0.17214018 0.024088738 0.66006607
0.30549368 0.025207607 0.66531032
0.31493729 0.025194876 0.66497469
0.32496104 0.025181364 0.66461766
0.33497378 0.025167862 0.66426158
0.34497598 0.025154376 0.66390544
0.35496736 0.025140913 0.66355008
0.36494806 0.025127452 0.66319501
0.37491804 0.025114009 0.66284013
0.38136405 0.02510532 0.66261071
0.078381687 0.034703214 0.66325873
0.084933154 0.034691021 0.66302568
0.0950495 0.034672186 0.66266567
0.10515512 0.034653377 0.66230625
0.1151993 0.03498267 0.66194415
0.12511864 0.035069395 0.66158998
0.13481209 0.035194207 0.66124302
0.14487427 0.035175163 0.66088498
0.15492579 0.035156135 0.66052735
0.16462088 0.034868043 0.66018635
0.17088243 0.03096127 0.66001666
0.30563602 0.034633689 0.66517633
0.31487623 0.034786239 0.66484511
0.32489806 0.034767576 0.66448879
0.33490884 0.034748938 0.66413242
0.34490922 0.034730326 0.66377705
0.35489857 0.034711733 0.66342145
0.36487749 0.034693155 0.66306657
0.3748455 0.034674596 0.66271186
0.38129026 0.034662604 0.66248256
0.078365326 0.044865482 0.66312027
0.084915422 0.044849716 0.66288733
0.095029704 0.044825375 0.66252744
0.10513321 0.044801053 0.66216803
0.11508817 0.044960599 0.66181165
0.12530561 0.045348696 0.6614424
0.13478404 0.045325585 0.66110551
0.14484411 0.045301042 0.66074759
0.15489359 0.045276545 0.66039014
0.16282584 0.044775669 0.66011459
0.30596179 0.044994216 0.66502327
0.31481135 0.044972926 0.66470844
0.32483107 0.044948805 0.664352
0.33483994 0.044924729 0.66399616
0.34483826 0.044900671 0.66364026
0.35482568 0.044876628 0.66328508
0.36480245 0.044852611 0.66293013
0.37476847 0.044828631 0.6625756
0.38121191 0.044813126 0.66234642
0.078349933 0.054426204 0.66298997
0.084898755 0.054407082 0.6627571
0.095011041 0.054377563 0.66239744
0.1051126 0.054348059 0.66203821
0.11520295 0.054318622 0.66167945
0.12528263 0.054289188 0.6613211
0.13475929 0.054261532 0.66098392
0.14481755 0.054232154 0.66062617
0.15486516 0.054202825 0.66026878
0.16122496 0.053344652 0.66005433
0.30590242 0.054582518 0.66489393
0.31475022 0.054556672 0.66457915
0.32476807 0.054527428 0.66422302
0.334775 0.054498225 0.66386712
0.34477136 0.054469023 0.66351181
0.35475686 0.05443988 0.66315657
0.36499923 0.054531422 0.66279066
0.37493134 0.054261558 0.66244084
0.38113829 0.054362867 0.66221851
-0.02208147 -0.19075853 0.67992806
-0.01471563 -0.19068468 0.67966473
-0.0049029561 -0.19058627 0.67931408
0.0048995977 -0.19048801 0.67896378
0.014692045 -0.19038981 0.67861372
0.025818922 -0.19076957 0.67822278
0.035467952 -0.19079536 0.67787957
0.045229048 -0.19069716 0.67753077
0.054149743 -0.19088615 0.67721575
0.064721912 -0.19111402 0.67684245
0.07384523 -0.19102195 0.67651641
-0.02303564 -0.18472581 0.67987972
-0.014713988 -0.18514594 0.67958897
-0.0049024089 -0.18505044 0.67923832
0.0048990524 -0.18495502 0.67888814
0.014690408 -0.18485965 0.67853808
0.025082566 -0.18475854 0.67816681
0.03546356 -0.18465747 0.67779583
0.045223452 -0.18456244 0.67744702
0.055106159 -0.18486604 0.67709941
0.064713925 -0.18498552 0.67675889
0.07371299 -0.18522975 0.67644185
-0.030302534 -0.17261402 0.67997247
-0.024392089 -0.1752722 0.67979854
-0.014711069 -0.17530209 0.67945403
-0.0049014371 -0.17521168 0.67910361
0.0048980806 -0.17512135 0.67875338
0.014687498 -0.1750311 0.67840379
0.0250776 -0.17493537 0.67803258
0.035456553 -0.17483968 0.67766172
0.045214511 -0.17474975 0.67731303
0.054962434 -0.17465991 0.67696476
0.064700328 -0.17457007 0.67661679
0.073942743 -0.17485227 0.67629164
-0.031838898 -0.16421258 0.67991221
-0.024659209 -0.16514759 0.67966914
-0.014708154 -0.16546224 0.67931956
-0.0049004657 -0.16537689 0.67896909
0.0048971102 -0.16529161 0.67861909
0.014684592 -0.16520652 0.67826939
0.025072634 -0.16511613 0.67789829
0.035449542 -0.16502576 0.67752779
0.045205574 -0.16494092 0.67717916
0.054951575 -0.16485615 0.67683095
0.064687565 -0.16477147 0.67648327
0.073806062 -0.16469209 0.67615747
-0.033797346 -0.15422234 0.67984492
-0.024383187 -0.15472333 0.67951667
-0.014705052 -0.15501161 0.67917615
-0.0050044339 -0.1550729 0.67883176
0.0048961411 -0.1554658 0.67848462
0.014681686 -0.15538569 0.6781351
0.025067678 -0.15530071 0.6777643
0.035442531 -0.1552158 0.67739367
0.04519663 -0.155136 0.6770454
0.054940715 -0.15505624 0.67669731
0.064674787 -0.15497659 0.6763497
0.073791504 -0.15490195 0.67602396
-0.041557916 -0.14246237 0.67996061
-0.034953877 -0.1447193 0.67975664
-0.024515629 -0.14463992 0.67938346
-0.014701957 -0.1445653 0.67903316
-0.0047870693 -0.1446574 0.67868149
0.0048951111 -0.14503008 0.67834193
0.014678597 -0.14495544 0.67799252
0.02499577 -0.14541414 0.6776315
0.035435524 -0.14540966 0.6772598
0.045187697 -0.14533488 0.67691159
0.054929875 -0.14526023 0.67656362
0.064662032 -0.14518566 0.67621636
0.073776938 -0.14511573 0.67589074
-0.043101974 -0.13443553 0.67990577
-0.034946933 -0.13488105 0.67962152
-0.024510771 -0.13480711 0.67924917
-0.014699045 -0.13473757 0.67889869
-0.0048974315 -0.13466814 0.67854887
0.0048940806 -0.13459879 0.67819923
0.014675509 -0.13452949 0.67785001
0.025118474 -0.13500704 0.67748481
0.035428081 -0.13499498 0.67711759
0.045118246 -0.13499495 0.67677248
0.054919038 -0.13546807 0.67643011
0.064649269 -0.13539852 0.67608273
0.073762394 -0.13533339 0.67575741
-0.050915066 -0.1208466 0.67999792
-0.044899646 -0.12482083 0.67983824
-0.034940004 -0.12504669 0.67948681
-0.024505913 -0.12497815 0.67911434
-0.01469613 -0.12491375 0.67876405
-0.0048964615 -0.12484938 0.67841429
0.0048931129 -0.12478507 0.67806488
0.014672606 -0.12472083 0.6777159
0.025052182 -0.12465266 0.67734534
0.035420638 -0.12458456 0.67697537
0.045234397 -0.1246048 0.67662627
0.054907508 -0.12506825 0.67628819
0.064635709 -0.12500399 0.67594093
0.073746912 -0.12494387 0.67561585
-0.051933266 -0.11415777 0.67994267
-0.045376319 -0.11527947 0.67972445
-0.034933079 -0.11521631 0.67935205
-0.024501046 -0.11515316 0.67897964
-0.014693217 -0.11509378 0.67862958
-0.0048954911 -0.11503448 0.67828
0.0048921457 -0.11497527 0.67793077
0.014669706 -0.11491609 0.67758185
0.025047233 -0.11485325 0.67721164
0.035413634 -0.11479055 0.67684156
0.045159817 -0.11473159 0.6764937
0.054895993 -0.11467264 0.67614633
0.064622164 -0.11461376 0.67579925
0.073731475 -0.11455864 0.67547417
-0.053702071 -0.10499334 0.67988014
-0.045367327 -0.10544755 0.67958969
-0.034926157 -0.10538974 0.67921716
-0.024496194 -0.10533201 0.67884505
-0.014690307 -0.10527772 0.67849535
-0.0048945225 -0.10522349 0.67814571
0.0048911762 -0.10516934 0.67779666
0.014666806 -0.10511521 0.67744786
0.025042277 -0.10505778 0.67707759
0.035406642 -0.10500038 0.6767078
0.045150902 -0.10494646 0.67636037
0.054885149 -0.10489257 0.67601281
0.064609408 -0.10483874 0.67566592
0.073716946 -0.10478831 0.67534101
-0.061077721 -0.092098586 0.67996639
-0.055070061 -0.094930984 0.67979127
-0.04535776 -0.09500546 0.6794467
-0.034918793 -0.094953403 0.67907405
-0.02462846 -0.09526825 0.67871207
-0.014687398 -0.095465578 0.67836082
-0.0048935534 -0.095416397 0.6780116
0.0048902081 -0.095367275 0.67766249
0.014663904 -0.095318228 0.67731386
0.025037333 -0.095266141 0.6769439
0.035399653 -0.095214128 0.67657417
0.045141984 -0.095165223 0.67622674
0.054874323 -0.095116362 0.67587966
0.064596675 -0.095067568 0.67553276
0.073702402 -0.095021844 0.67520797
-0.062582172 -0.084108979 0.6799106
-0.055181596 -0.084611289 0.67965394
-0.045348205 -0.084567651 0.67930347
-0.034911446 -0.084521323 0.67893112
-0.024352813 -0.084874325 0.67856008
-0.014684313 -0.085044429 0.67821813
-0.0048925248 -0.085000642 0.67786896
0.0048891804 -0.084956899 0.6775201
0.014660822 -0.084913209 0.67717159
0.025032382 -0.085478373 0.67681009
0.035392664 -0.085431702 0.67644054
0.045133077 -0.085387841 0.67609334
0.054863501 -0.085344009 0.6757462
0.064583942 -0.085300237 0.67539954
0.073687874 -0.085259236 0.67507488
-0.064462259 -0.074493833 0.67984611
-0.055170663 -0.074786477 0.6795193
-0.045339223 -0.074747905 0.67916852
-0.035433017 -0.074775048 0.67881656
-0.025024865 -0.074607722 0.67844343
-0.014681219 -0.074627578 0.67807549
-0.0048914962 -0.074589171 0.67772639
0.0048881546 -0.0745508 0.67737776
0.014657745 -0.074512474 0.67702943
0.025027137 -0.075083166 0.67666811
0.03538524 -0.075042181 0.67629874
0.045123618 -0.075003654 0.67595148
0.054852001 -0.074965172 0.67560458
0.064570397 -0.074926727 0.67525798
0.073613875 -0.074969597 0.67493653
-0.071383126 -0.063869163 0.67994714
-0.064999364 -0.064999104 0.67973512
-0.055159718 -0.064965561 0.67938465
-0.045330226 -0.064932048 0.67903405
-0.035510868 -0.064898565 0.67868406
-0.025089001 -0.064863056 0.67831236
-0.014678313 -0.064827561 0.67794126
-0.0048905285 -0.06479419 0.6775924
0.0048871883 -0.064760856 0.67724389
0.014654847 -0.064727567 0.67689562
0.025021877 -0.064692229 0.67652607
0.035377815 -0.064656913 0.67615682
0.04511416 -0.064623728 0.67580986
0.054840501 -0.064590566 0.67546308
0.064556889 -0.064557455 0.67511672
0.073721014 -0.064622447 0.6747914
-0.073136382 -0.054796148 0.67988545
-0.06498646 -0.055176992 0.67960024
-0.055148777 -0.05514852 0.67924964
-0.045321248 -0.055120081 0.67889953
-0.035503838 -0.055091672 0.67854959
-0.025084034 -0.055061508 0.67817813
-0.014675411 -0.055031411 0.67780709
-0.0048895604 -0.055003092 0.67745841
0.0048862221 -0.054974794 0.67710996
0.014651955 -0.054946542 0.67676198
0.025016945 -0.054916538 0.6763925
0.035370838 -0.054886565 0.6760233
0.045105264 -0.054858413 0.67567652
0.054829702 -0.054830264 0.67532992
0.064628072 -0.054736272 0.67497975
0.073708802 -0.054853182 0.67465806
-0.080664344 -0.042019069 0.67997849
-0.074680224 -0.04526303 0.67980963
-0.06497357 -0.045358773 0.67946559
-0.055137854 -0.045335382 0.67911518
-0.045312252 -0.045311995 0.678765
-0.035496809 -0.045288663 0.67841512
-0.025079064 -0.045263868 0.67804396
-0.014672506 -0.045239121 0.67767304
-0.0048885937 -0.045215838 0.67732435
0.0048852563 -0.045192592 0.67697614
0.014649061 -0.045169368 0.67662817
0.025012001 -0.045144722 0.67625904
0.035363857 -0.04512009 0.67589015
0.045096364 -0.045096938 0.67554325
0.054818902 -0.045073804 0.67519677
0.065138049 -0.045049254 0.67482907
0.074234247 -0.045027617 0.67450494
-0.082052179 -0.034012038 0.67991835
-0.07480368 -0.034949262 0.67967302
-0.064959891 -0.034931235 0.67932248
-0.055126227 -0.03491322 0.67897207
-0.04536929 -0.0354231 0.6786316
-0.035489775 -0.035489518 0.67828077
-0.025074102 -0.035470098 0.67790955
-0.014669605 -0.035450704 0.67753899
-0.0048876279 -0.035432477 0.67719048
0.004884291 -0.035414256 0.67684239
0.014646168 -0.035396047 0.67649454
0.025007064 -0.035376746 0.67612541
0.035356883 -0.035357445 0.67575669
0.045087472 -0.035339311 0.67541003
0.054808103 -0.03532118 0.67506367
0.065125234 -0.035301957 0.67469615
0.074219622 -0.035285 0.67437214
-0.083954535 -0.024146007 0.67985117
-0.074787915 -0.024520649 0.67952991
-0.06494619 -0.024508007 0.67917925
-0.055114623 -0.024495361 0.6788289
-0.045233186 -0.025026057 0.67848462
-0.035482302 -0.025082231 0.67813814
-0.025068834 -0.02506851 0.67776722
-0.014666523 -0.025054809 0.67739666
-0.0048866016 -0.025041921 0.67704839
0.0048832661 -0.025029048 0.67670029
0.014643096 -0.025016192 0.67635256
0.025001826 -0.025002545 0.67598355
0.03534947 -0.02498891 0.67561507
0.045078028 -0.024976093 0.67526859
0.054796617 -0.024963293 0.67492253
0.065111592 -0.024949702 0.67455506
0.074204095 -0.024937723 0.67423111
-0.090957336 -0.013231805 0.67995107
-0.084622994 -0.01471713 0.67974597
-0.074773088 -0.014709536 0.67939502
-0.064933315 -0.014701949 0.67904472
-0.055103704 -0.014694369 0.67869461
-0.045284223 -0.014686797 0.67834496
-0.035474852 -0.014679235 0.6779955
-0.025063567 -0.014671208 0.67762476
-0.014663439 -0.014663187 0.67725432
-0.0048855753 -0.01465565 0.67690617
0.0048822421 -0.014648115 0.67655832
0.014640025 -0.014640597 0.67621076
0.024996575 -0.014632608 0.67584205
0.035342071 -0.014624628 0.67547339
0.045068588 -0.014617134 0.67512721
0.054785144 -0.014609637 0.6747812
0.065097965 -0.014601684 0.6744138
0.074188583 -0.014594679 0.67409009
-0.092614099 -0.0044821734 0.6798901
-0.084606208 -0.0049048443 0.67961097
-0.074758254 -0.0049023125 0.67926013
-0.064920448 -0.0048997845 0.6789099
-0.055092797 -0.0048972592 0.67856002
-0.045275237 -0.0048947362 0.67821079
-0.035467826 -0.0048922165 0.67786139
-0.025058605 -0.0048895408 0.67749089
-0.014660545 -0.004886867 0.67712051
-0.0048846104 -0.0048843566 0.67677253
0.0048812772 -0.0048818472 0.67642474
0.014637136 -0.0048793405 0.67607731
0.024991652 -0.0048766793 0.67570865
0.03533509 -0.0048740213 0.67534035
0.045059722 -0.0048715216 0.67499399
0.054774355 -0.0048690252 0.67464828
0.06508515 -0.0048663756 0.67428136
0.074173994 -0.0048640394 0.67395753
-0.094502814 0.0051936181 0.67982525
-0.084589429 0.0049035521 0.67947614
-0.074743427 0.0049010217 0.67912561
-0.064907588 0.004898495 0.67877555
-0.055081874 0.0048959698 0.67842591
-0.045266278 0.0048934501 0.67807633
-0.035460811 0.0048909313 0.67772728
-0.025053652 0.004888257 0.67735684
-0.014657642 0.0048855855 0.67698681
-0.0048836446 0.0048830761 0.67663872
0.0048803138 0.0048805666 0.67629123
0.014634247 0.0048780609 0.67594397
0.024986718 0.004875401 0.67557538
0.035328135 0.0048727458 0.6752072
0.045050826 0.0048702476 0.67486125
0.054763567 0.004867753 0.67451537
0.06507235 0.0048651043 0.67414832
0.074159406 0.004862769 0.67382485
-0.10205267 0.015871378 0.67994785
-0.095043197 0.01471612 0.67971426
-0.084572673 0.014708056 0.67934161
-0.074728608 0.01470047 0.67899114
-0.064894721 0.014692891 0.67864108
-0.05507097 0.014685321 0.67829138
-0.04525733 0.014677761 0.67794216
-0.035453804 0.014670206 0.67759311
-0.025048697 0.014662185 0.67722285
-0.014654747 0.01465418 0.67685294
-0.0048826807 0.014646652 0.67650515
0.0048793503 0.014639127 0.67615777
0.014631358 0.014631609 0.67581058
0.024981795 0.014623637 0.67544222
0.035321176 0.014615666 0.6750741
0.045041952 0.014608176 0.67472827
0.054752793 0.014600695 0.67438257
0.06505955 0.014592754 0.67401576
0.07414481 0.014585752 0.67369241
-0.10380316 0.024937158 0.67988598
-0.09502434 0.024522116 0.67957914
-0.084555864 0.024508672 0.67920655
-0.074601784 0.024662785 0.67885023
-0.064881064 0.025095146 0.67849827
-0.055059385 0.025082219 0.67814869
-0.045247808 0.025069308 0.6777997
-0.035446346 0.025056407 0.67745078
-0.025043441 0.025042716 0.67708051
-0.014651673 0.025029041 0.67671084
-0.0048816558 0.025016176 0.67636323
0.0048783263 0.025003335 0.67601585
0.014628293 0.024990503 0.67566895
0.024976557 0.024976887 0.67530072
0.035313774 0.024963276 0.67493284
0.045032535 0.024950484 0.67458707
0.054741338 0.024937706 0.67424148
0.06504593 0.024924142 0.67387491
0.074129336 0.024912192 0.67355162
-0.11143655 0.038440477 0.67997313
-0.10535818 0.035078209 0.67980278
-0.095004283 0.034936674 0.67943621
-0.084538072 0.034917518 0.67906368
-0.074803248 0.035039548 0.67871541
-0.064867422 0.035493102 0.67835552
-0.055047818 0.035474826 0.67800617
-0.045238305 0.035456575 0.67765719
-0.035438899 0.035438325 0.67730856
-0.025038179 0.035418969 0.67693853
-0.0146486 0.035399619 0.67656887
-0.0048806313 0.035381444 0.67622131
0.0048773042 0.035363279 0.67587405
0.014625227 0.03534513 0.67552733
0.024971334 0.035325874 0.67515928
0.03530639 0.035306644 0.67479151
0.045023113 0.03528855 0.67444587
0.054729894 0.035270479 0.67410064
0.065032333 0.035251297 0.67373413
0.074113831 0.035234395 0.67341107
-0.11279504 0.046128895 0.67991632
-0.10545955 0.045371801 0.67966574
-0.094984293 0.045346931 0.67929292
-0.08452028 0.045322083 0.67892057
-0.074682347 0.045298718 0.67857075
-0.064854577 0.045275379 0.67822117
-0.055036902 0.045252077 0.677872
-0.045229364 0.045228779 0.67752308
-0.035431895 0.045205519 0.67717469
-0.02503323 0.045180842 0.67680478
-0.014645702 0.045156159 0.67643535
-0.0048796688 0.045132965 0.67608792
0.0048763426 0.045109816 0.6757409
0.014622345 0.045086678 0.67539418
0.024966406 0.045062114 0.67502618
0.035299432 0.045037568 0.6746586
0.045014247 0.045014501 0.67431319
0.054719113 0.04499146 0.6739679
0.06501954 0.044967007 0.67360169
0.074099272 0.044945437 0.67327857
-0.11450209 0.05490429 0.67985708
-0.10543995 0.054558702 0.67953908
-0.094966613 0.05452881 0.67916662
-0.084504582 0.054498937 0.6787945
-0.074668504 0.054470856 0.67844474
-0.064842552 0.054442797 0.67809528
-0.055026703 0.054414775 0.67774624
-0.045220982 0.054386761 0.67739761
-0.035425324 0.054358799 0.6770491
-0.025028598 0.054329135 0.67667937
-0.014642994 0.054299463 0.67631
-0.0048787654 0.054271586 0.67596287
0.0048754411 0.05424374 0.67561585
0.014619641 0.054215912 0.67526942
0.024961794 0.054186381 0.67490137
0.03529292 0.054156881 0.6745342
0.045005944 0.05412915 0.67418873
0.054709028 0.054101445 0.67384368
0.06500759 0.054072034 0.67347747
0.07408563 0.054046109 0.67315453
-0.30247718 -0.19107093 0.68991506
-0.29489306 -0.19099587 0.68964404
-0.28478971 -0.19089587 0.68928295
-0.27469692 -0.19079597 0.68892229
-0.26461467 -0.19069618 0.68856186
-0.25454301 -0.19059651 0.68820196
-0.2444818 -0.19049692 0.68784243
-0.23443115 -0.19039746 0.68748331
-0.22439098 -0.19029808 0.68712443
-0.21423745 -0.19057068 0.68676668
-0.20559648 -0.19073369 0.68646127
-0.19630827 -0.19078483 0.68613124
-0.18558878 -0.19115598 0.68575472
-0.17559923 -0.19105646 0.68539768
-0.16499691 -0.19095084 0.68501878
-0.15440603 -0.19084534 0.68464029
-0.14444895 -0.19074613 0.68428439
-0.13450222 -0.19064705 0.68392897
-0.12456582 -0.19054806 0.6835739
-0.11463972 -0.19044918 0.68321913
-0.10472394 -0.1903504 0.68286473
-0.093994163 -0.19065548 0.68248683
-0.084924228 -0.19077086 0.6821655
-0.075039111 -0.1906721 0.68181229
-0.065165028 -0.19119051 0.68146783
-0.055300239 -0.1910916 0.68111527
-0.045445647 -0.1909928 0.68076307
-0.034986421 -0.19088793 0.68038923
-0.026995415 -0.1908078 0.68010366
-0.30357811 -0.18497366 0.68987077
-0.29485965 -0.18537582 0.68956596
-0.28475749 -0.18527873 0.68920493
-0.27466586 -0.18518181 0.6888442
-0.26458484 -0.18508497 0.68848413
-0.25451422 -0.18498825 0.68812418
-0.24445419 -0.18489163 0.68776482
-0.23454697 -0.18491688 0.68741232
-0.22516514 -0.18457758 0.68707377
-0.21559007 -0.1846143 0.68673331
-0.20557067 -0.1845181 0.68637526
-0.19542278 -0.18467087 0.68601602
-0.18568076 -0.18539937 0.68567908
-0.17557947 -0.18547103 0.68532056
-0.16543192 -0.18548562 0.68495959
-0.15486868 -0.18516444 0.68457907
-0.14443269 -0.1851698 0.68420756
-0.13448714 -0.1850736 0.6838522
-0.12455184 -0.18497753 0.68349713
-0.11462687 -0.18488154 0.68314248
-0.10471221 -0.18478563 0.68278813
-0.094807796 -0.18468983 0.68243432
-0.084913656 -0.18459418 0.68208063
-0.075029776 -0.18449858 0.68172753
-0.065156937 -0.18502012 0.68138307
-0.05543172 -0.18529385 0.68104053
-0.04544057 -0.18544511 0.68068689
-0.034982521 -0.1853433 0.68031329
-0.027607271 -0.1862977 0.68006372
-0.31100607 -0.17261977 0.6899662
-0.30484048 -0.17540932 0.689785
-0.29480037 -0.17538743 0.6894272
-0.28470021 -0.1752957 0.68906629
-0.27461067 -0.17520392 0.68870592
-0.26453161 -0.17511235 0.68834579
-0.25446311 -0.17502084 0.68798608
-0.24462213 -0.17508447 0.68763655
-0.2352398 -0.17468789 0.68729711
-0.22557475 -0.17475826 0.68695384
-0.21554694 -0.17466715 0.6865958
-0.20552951 -0.1745761 0.68623781
-0.19552259 -0.17448513 0.68588024
-0.18542086 -0.17487207 0.68552595
-0.17561123 -0.17545886 0.68518472
-0.16556838 -0.17545284 0.68482703
-0.15527371 -0.17550433 0.6844613
-0.14473271 -0.17511632 0.68408066
-0.1344603 -0.17516805 0.68371564
-0.12452698 -0.17507716 0.6833607
-0.11460399 -0.17498632 0.68300635
-0.10469131 -0.17489555 0.68265212
-0.094788902 -0.17480491 0.68229842
-0.084896743 -0.17471433 0.68194479
-0.075014852 -0.17462395 0.68159193
-0.065143168 -0.17453358 0.68123913
-0.055148207 -0.17484406 0.6808874
-0.045430973 -0.17496923 0.6805433
-0.035324302 -0.17570347 0.68019348
-0.028831899 -0.17912585 0.68000919
-0.31243327 -0.16484699 0.68991077
-0.30484965 -0.16548973 0.68964952
-0.29474109 -0.1654031 0.68928844
-0.28464296 -0.16531657 0.68892777
-0.27455541 -0.16523011 0.68856728
-0.26447842 -0.16514371 0.68820739
-0.2545546 -0.16517912 0.68785453
-0.24515685 -0.16484933 0.68751562
-0.23556578 -0.16489588 0.68717468
-0.22552951 -0.16480988 0.68681628
-0.21550371 -0.16472392 0.68645817
-0.2054884 -0.16463809 0.68610042
-0.19548345 -0.16455235 0.68574291
-0.18548898 -0.16446668 0.68538594
-0.17544535 -0.16493078 0.68503469
-0.1655353 -0.16553506 0.68469012
-0.15557173 -0.16544901 0.68433428
-0.14499682 -0.16535769 0.6839565
-0.1344334 -0.16526647 0.68357927
-0.12450215 -0.16518067 0.6832245
-0.11458118 -0.16509497 0.68287015
-0.10467048 -0.16500939 0.6825161
-0.094770044 -0.16492395 0.68216234
-0.084879853 -0.16483851 0.68180925
-0.074999943 -0.1647532 0.68145621
-0.065130219 -0.16466792 0.68110365
-0.055270705 -0.16458277 0.68075144
-0.045421392 -0.16449775 0.68039966
-0.037119571 -0.16558024 0.68011886
-0.32056433 -0.15001166 0.6899972
-0.31429264 -0.15509258 0.68984348
-0.30478832 -0.15550421 0.68951064
-0.29468176 -0.15542282 0.68914974
-0.28458571 -0.15534145 0.68878925
-0.27450019 -0.15526025 0.68842894
-0.26449561 -0.15524881 0.68807262
-0.25507742 -0.15502737 0.68773425
-0.24556321 -0.15502714 0.68739557
-0.23551846 -0.15494628 0.68703675
-0.22548433 -0.15486544 0.68667871
-0.21546052 -0.15478472 0.6863206
-0.20544718 -0.15470406 0.68596286
-0.19544432 -0.15462349 0.68560576
-0.18545178 -0.15454304 0.68524885
-0.17546976 -0.15446261 0.68489236
-0.16550016 -0.15500183 0.68454486
-0.15560737 -0.15545514 0.68419886
-0.14533934 -0.15559605 0.68383521
-0.13481128 -0.1552376 0.68345547
-0.12447733 -0.15528814 0.68308818
-0.11455835 -0.15520762 0.68273407
-0.1046496 -0.1551272 0.68238008
-0.094751179 -0.15504684 0.68202657
-0.084862977 -0.15496658 0.68167347
-0.074985005 -0.15488636 0.68132067
-0.065117255 -0.15480626 0.68096828
-0.055259716 -0.15472622 0.68061626
-0.045412369 -0.15464628 0.68026459
-0.039032929 -0.15574826 0.68005252
-0.32157525 -0.14322205 0.68994027
-0.31488919 -0.14535917 0.68973142
-0.30472693 -0.14552264 0.68937188
-0.29462254 -0.14544649 0.68901116
-0.28452849 -0.14537038 0.68865073
-0.27444503 -0.1452944 0.68829066
-0.26500136 -0.14522319 0.68795341
-0.2555671 -0.14515211 0.68761665
-0.24551396 -0.14507632 0.68725777
-0.23547131 -0.14500064 0.68689919
-0.2254391 -0.14492503 0.68654078
-0.21541739 -0.14484952 0.68618304
-0.20540611 -0.14477402 0.68582565
-0.1954052 -0.14469868 0.68546849
-0.18541479 -0.14462335 0.68511188
-0.17543469 -0.14454812 0.68475544
-0.16546498 -0.14447296 0.68439949
-0.15544608 -0.14494663 0.68404937
-0.14569876 -0.14531183 0.68370718
-0.13500072 -0.14547983 0.68332863
-0.12445252 -0.14539963 0.68295205
-0.1145355 -0.14532422 0.68259788
-0.10462877 -0.14524895 0.68224424
-0.094732292 -0.14517367 0.68189079
-0.084846102 -0.14509852 0.68153781
-0.074970104 -0.14502348 0.68118525
-0.065104328 -0.14494847 0.6808328
-0.055248749 -0.1448736 0.68048096
-0.045952689 -0.14513244 0.68015349
-0.32334501 -0.13392018 0.68987608
-0.31481403 -0.13514376 0.68958908
-0.30466571 -0.13554512 0.68923318
-0.29456317 -0.13547423 0.68887264
-0.28447127 -0.13540335 0.68851238
-0.2749317 -0.13541281 0.6881727
-0.2655071 -0.13520107 0.68783432
-0.25551581 -0.13520002 0.68747866
-0.24546467 -0.13512948 0.68711984
-0.2354241 -0.135059 0.68676132
-0.22539391 -0.13498858 0.68640333
-0.2153742 -0.13491823 0.68604571
-0.20536496 -0.13484798 0.68568838
-0.19536613 -0.13477778 0.68533123
-0.1853777 -0.13470764 0.68497473
-0.17539968 -0.13463759 0.68461865
-0.16543196 -0.13456762 0.68426293
-0.15547465 -0.13449773 0.68390727
-0.14539371 -0.13483018 0.68355298
-0.13509808 -0.13508214 0.68318987
-0.12451338 -0.1354491 0.682818
-0.1145127 -0.13544479 0.68246192
-0.10460792 -0.13537458 0.6821084
-0.094713435 -0.1353045 0.68175507
-0.084829204 -0.13523443 0.68140215
-0.07495518 -0.1351645 0.6810497
-0.065091394 -0.1350946 0.68069756
-0.055237766 -0.13502479 0.68034595
-0.047834598 -0.13550809 0.68008876
-0.33076036 -0.12162324 0.68997175
-0.32468504 -0.12433377 0.68979257
-0.31462502 -0.12478986 0.68944061
-0.30460438 -0.12557159 0.68909442
-0.29450399 -0.12550586 0.68873411
-0.28470913 -0.12560816 0.68838674
-0.2752994 -0.12521501 0.68804634
-0.26552412 -0.12531741 0.68769962
-0.25546452 -0.12525198 0.68734068
-0.24541548 -0.12518664 0.68698198
-0.23537688 -0.12512128 0.68662369
-0.22534882 -0.12505612 0.68626583
-0.21533114 -0.12499096 0.6859082
-0.20532385 -0.12492588 0.68555111
-0.19532707 -0.12486086 0.68519437
-0.18534063 -0.12479589 0.68483794
-0.17536458 -0.12473103 0.68448168
-0.16539893 -0.12466621 0.68412602
-0.15544362 -0.12460145 0.68377084
-0.14549862 -0.12453678 0.68341583
-0.13556398 -0.12447217 0.6830613
-0.12502137 -0.12502106 0.68269336
-0.1145949 -0.12509391 0.68232322
-0.10458712 -0.1255042 0.68197262
-0.0946946 -0.12543921 0.68161952
-0.084812336 -0.12537429 0.68126678
-0.074940309 -0.12530945 0.6809144
-0.065078437 -0.12524468 0.68056244
-0.055295236 -0.12524875 0.68021405
-0.049340222 -0.12751338 0.68003309
-0.33217391 -0.11385143 0.68991566
-0.32476342 -0.114476 0.68966055
-0.3145766 -0.11450192 0.68929827
-0.30468291 -0.11535184 0.68895763
-0.29444477 -0.1155416 0.68859565
-0.28498703 -0.115485 0.68825805
-0.2755388 -0.11542843 0.68792087
-0.26547077 -0.11536812 0.68756181
-0.25541326 -0.1153079 0.68720281
-0.24536628 -0.11524775 0.68684435
-0.23532972 -0.11518767 0.68648624
-0.22530369 -0.11512762 0.68612838
-0.21528801 -0.11506765 0.68577087
-0.20528275 -0.11500775 0.6854139
-0.195288 -0.11494789 0.68505734
-0.1853036 -0.11488811 0.68470097
-0.17532955 -0.11482841 0.68434495
-0.16536589 -0.11476874 0.68398952
-0.15541258 -0.11470914 0.68363434
-0.14546961 -0.1146496 0.68327945
-0.13553695 -0.11459014 0.68292522
-0.12499486 -0.11452704 0.682549
-0.11435203 -0.1146315 0.68217152
-0.10456499 -0.11502126 0.68182826
-0.09467461 -0.11496171 0.68147528
-0.084861808 -0.11543316 0.68113244
-0.0749254 -0.11545832 0.68077892
-0.065065525 -0.11539865 0.68042707
-0.056500316 -0.1158013 0.6801278
-0.33404616 -0.10413916 0.6898495
-0.32469794 -0.10450052 0.68952167
-0.3145808 -0.10444583 0.68916065
-0.30433941 -0.10479651 0.68880099
-0.295082 -0.10548688 0.68848073
-0.28556004 -0.10553306 0.68814236
-0.27548352 -0.10547791 0.68778288
-0.26541755 -0.10542288 0.68742371
-0.25536206 -0.10536783 0.68706506
-0.24531709 -0.10531288 0.68670654
-0.23528253 -0.10525797 0.6863485
-0.2252585 -0.10520313 0.68599087
-0.21524489 -0.10514832 0.68563366
-0.2052417 -0.10509361 0.68527687
-0.19524895 -0.10503892 0.68492043
-0.18526657 -0.10498429 0.68456405
-0.17529453 -0.10492975 0.68420833
-0.16533288 -0.10487524 0.68385297
-0.15538159 -0.1048208 0.68349791
-0.14544061 -0.10476641 0.68314332
-0.13550995 -0.10471204 0.68278897
-0.12497 -0.1046544 0.68241298
-0.11444143 -0.10459678 0.68203723
-0.10454287 -0.10454263 0.68168402
-0.094654575 -0.10448851 0.68133146
-0.084716581 -0.10498042 0.68098426
-0.074909598 -0.10499582 0.68063527
-0.065112591 -0.10501119 0.68028659
-0.058282036 -0.10654362 0.68006462
-0.34122655 -0.092931256 0.68995178
-0.33475828 -0.094578594 0.68974406
-0.32463267 -0.094529092 0.68938285
-0.31451753 -0.094479606 0.68902206
-0.30478838 -0.094590239 0.68867719
-0.29527175 -0.094747588 0.6883406
-0.28557 -0.095495559 0.68800545
-0.27542815 -0.095531419 0.68764478
-0.2653642 -0.09548156 0.68728584
-0.25531083 -0.095431723 0.68692714
-0.24526793 -0.095381945 0.68656904
-0.23523545 -0.09533225 0.68621099
-0.22521341 -0.095282584 0.68585372
-0.21520182 -0.095232971 0.68549645
-0.20520067 -0.09518341 0.68513978
-0.19520995 -0.095133901 0.6847834
-0.18522952 -0.095084444 0.68442738
-0.17525952 -0.095035046 0.68407172
-0.16529988 -0.094985664 0.68371648
-0.15535063 -0.094936356 0.68336147
-0.14541158 -0.094887137 0.68300712
-0.13548292 -0.094837911 0.68265283
-0.12556456 -0.094788775 0.68229914
-0.11503764 -0.094736584 0.68192369
-0.10452207 -0.094684504 0.68154854
-0.094635755 -0.094635494 0.68119586
-0.084759645 -0.094586559 0.68084353
-0.074893765 -0.094537668 0.68049169
-0.065441884 -0.094872318 0.68015969
-0.059504203 -0.099378169 0.68000996
-0.34288672 -0.084083937 0.68988985
-0.33469099 -0.084605955 0.68960512
-0.32456726 -0.084561631 0.68924415
-0.31445429 -0.084517382 0.68888348
-0.30498284 -0.084475942 0.68854576
-0.29552084 -0.084434576 0.68820822
-0.2853792 -0.084941767 0.68785411
-0.27551916 -0.085260637 0.68750745
-0.26531097 -0.085544243 0.68714803
-0.25525963 -0.085499622 0.68678945
-0.24521877 -0.085455045 0.68643135
-0.23518834 -0.085410498 0.68607372
-0.22516836 -0.085366026 0.68571627
-0.21515878 -0.085321575 0.68535942
-0.2051596 -0.085277155 0.6850028
-0.19517091 -0.085232846 0.68464661
-0.18519251 -0.085188523 0.68429065
-0.17522454 -0.085144266 0.68393511
-0.16526692 -0.085100047 0.68357998
-0.15531962 -0.085055895 0.68322527
-0.14538263 -0.085011803 0.68287098
-0.13545591 -0.084967718 0.68251681
-0.12553954 -0.084923692 0.68216318
-0.11501474 -0.084876962 0.68178785
-0.10450129 -0.084830284 0.68141299
-0.09461695 -0.0847864 0.68106037
-0.084742814 -0.084742561 0.68070841
-0.074878909 -0.084698766 0.68035638
-0.067320094 -0.085167967 0.68009377
-0.35043287 -0.070957989 0.6899789
-0.34447956 -0.074446768 0.68981469
-0.33462361 -0.074637309 0.68946642
-0.32450202 -0.074598208 0.68910545
-0.31502256 -0.074561641 0.68876749
-0.30555266 -0.074525088 0.68842971
-0.29546142 -0.074486129 0.68807006
-0.28538087 -0.074447237 0.6877107
-0.27516457 -0.074736536 0.68735087
-0.26525447 -0.074990258 0.68700141
-0.25527564 -0.075485855 0.68665302
-0.24516959 -0.075532101 0.68629372
-0.23514122 -0.075492725 0.68593621
-0.22512329 -0.075453423 0.68557906
-0.21511573 -0.075414158 0.68522221
-0.20511861 -0.075374916 0.68486571
-0.19513194 -0.075335726 0.68450963
-0.18515553 -0.075296611 0.68415403
-0.17518952 -0.07525748 0.68379867
-0.1652339 -0.075218387 0.68344355
-0.15528864 -0.075179361 0.68308908
-0.14535365 -0.075140394 0.68273473
-0.13542899 -0.075101443 0.68238091
-0.12551455 -0.075062551 0.68202728
-0.11499182 -0.07502123 0.68165225
-0.10448049 -0.074979983 0.68127739
-0.094598152 -0.074941203 0.68092507
-0.084725983 -0.074902467 0.68057305
-0.07486403 -0.074863777 0.68022132
-0.068862192 -0.077144079 0.68003893
-0.3517065 -0.063998371 0.68992895
-0.34468636 -0.064706534 0.68968874
-0.33455625 -0.064672679 0.68932772
-0.32458022 -0.064759716 0.68897361
-0.31513271 -0.064478986 0.68863338
-0.30549121 -0.064575449 0.68829155
-0.29540205 -0.064541712 0.68793184
-0.28532353 -0.064507999 0.6875726
-0.27525553 -0.064474337 0.68721378
-0.26519799 -0.06444069 0.68685526
-0.25509194 -0.064957142 0.68650246
-0.24511743 -0.064993352 0.68614775
-0.23522842 -0.065175377 0.68579829
-0.22507823 -0.065544792 0.68544191
-0.21507269 -0.065510675 0.68508518
-0.20507762 -0.065476611 0.68472892
-0.19509289 -0.065442592 0.68437284
-0.18511854 -0.065408573 0.68401736
-0.17515458 -0.06537462 0.68366218
-0.16520099 -0.065340675 0.68330729
-0.1552577 -0.065306783 0.68295276
-0.14532466 -0.065272927 0.68259871
-0.13540198 -0.065239102 0.68224508
-0.12548955 -0.065205291 0.68189162
-0.11496896 -0.065169439 0.68151647
-0.10445973 -0.065133624 0.68114203
-0.094579324 -0.06509994 0.68078977
-0.084709153 -0.065066278 0.68043792
-0.076004513 -0.065420516 0.68013287
-0.35356393 -0.054376557 0.6898635
-0.34461698 -0.054740697 0.68954998
-0.33448896 -0.054712038 0.68918896
-0.32500342 -0.054685198 0.68885088
-0.31552747 -0.054658391 0.68851316
-0.30542988 -0.054629825 0.68815327
-0.29534283 -0.054601286 0.68779367
-0.28526625 -0.054572765 0.68743467
-0.27520034 -0.054544289 0.68707573
-0.26514482 -0.054515831 0.68671739
-0.2550998 -0.054487411 0.68635941
-0.24506529 -0.054459006 0.68600172
-0.2349022 -0.054679777 0.68564302
-0.22503039 -0.055021279 0.6852963
-0.215027 -0.054992616 0.68493962
-0.20503406 -0.054964047 0.68458354
-0.19516665 -0.055385154 0.6842379
-0.18508168 -0.055524506 0.68388081
-0.17511965 -0.055495698 0.68352568
-0.16516799 -0.055466898 0.68317097
-0.15522669 -0.055438127 0.68281662
-0.14529569 -0.05540939 0.68246281
-0.13537502 -0.05538068 0.68210918
-0.1254646 -0.055351991 0.68175608
-0.11523739 -0.055467144 0.68139327
-0.10476574 -0.055147346 0.68101609
-0.094560541 -0.055262577 0.68065441
-0.084692322 -0.055234008 0.68030274
-0.077861041 -0.055935167 0.68006915
-0.36084887 -0.042480301 0.68996006
-0.35468417 -0.044802312 0.68977243
-0.3445476 -0.044778861 0.68941104
-0.33479789 -0.044914428 0.68906587
-0.32535157 -0.044581477 0.68872494
-0.31546402 -0.044711541 0.68837476
-0.30536854 -0.044688176 0.68801498
-0.29528347 -0.044664837 0.68765563
-0.28520906 -0.044641513 0.68729675
-0.27514517 -0.044618219 0.68693811
-0.26509172 -0.044594951 0.6865797
-0.25504875 -0.044571716 0.6862219
-0.24501622 -0.044548493 0.68586439
-0.23499417 -0.044525299 0.6855073
-0.22498254 -0.044502128 0.6851505
-0.21498135 -0.044478972 0.68479419
-0.20499051 -0.044455837 0.68443805
-0.19490512 -0.044909004 0.68408513
-0.18504231 -0.045027077 0.68373585
-0.17508252 -0.045003701 0.6833809
-0.16513309 -0.044980355 0.68302637
-0.15519382 -0.044957031 0.6826722
-0.14537172 -0.045074768 0.68232399
-0.13534805 -0.045526192 0.6819734
-0.12543963 -0.045502614 0.68162024
-0.11554143 -0.04547907 0.6812675
-0.10503593 -0.045454081 0.68089312
-0.094541766 -0.045429122 0.6805191
-0.084942937 -0.045631412 0.68018031
-0.079135694 -0.049076408 0.68002063
-0.36238953 -0.03434363 0.6899035
-0.35461271 -0.034839269 0.68963349
-0.34447828 -0.03482103 0.6892724
-0.33498669 -0.034803946 0.68893433
-0.32550463 -0.03478688 0.68859643
-0.31540069 -0.034768693 0.68823647
-0.30530715 -0.034750525 0.68787688
-0.29522425 -0.034732383 0.68751758
-0.28515187 -0.034714252 0.68715864
-0.27508995 -0.034696143 0.68680024
-0.26503858 -0.034678057 0.6864422
-0.25499761 -0.034659978 0.68608439
-0.24496716 -0.034641922 0.68572712
-0.23494713 -0.034623895 0.68537009
-0.22493754 -0.034605872 0.68501353
-0.21493839 -0.034587875 0.68465739
-0.20494959 -0.034569908 0.68430132
-0.19497122 -0.034551937 0.68394601
-0.18500312 -0.034534 0.68359077
-0.17504546 -0.034516081 0.683236
-0.16509803 -0.034498174 0.68288165
-0.15516102 -0.034480285 0.6825276
-0.14512199 -0.034630153 0.6821723
-0.13531947 -0.035060126 0.68182915
-0.1254131 -0.03504198 0.68147618
-0.11551705 -0.035023857 0.6811235
-0.10501378 -0.035004616 0.68074936
-0.094521798 -0.034985401 0.68037581
-0.086627632 -0.035689611 0.68010443
-0.37036142 -0.020541053 0.68999851
-0.36418134 -0.024597622 0.68983406
-0.35454133 -0.024880238 0.68949461
-0.34486812 -0.024996458 0.68915182
-0.33540815 -0.024735272 0.68881154
-0.32543924 -0.024842823 0.68845814
-0.31533733 -0.02482984 0.68809819
-0.30524585 -0.024816869 0.68773878
-0.295165 -0.024803914 0.68737978
-0.28509465 -0.024790967 0.68702102
-0.27503479 -0.024778031 0.68666261
-0.26498544 -0.024765117 0.68630475
-0.25494653 -0.024752216 0.68594712
-0.24491815 -0.024739323 0.68558991
-0.23490015 -0.02472645 0.68523294
-0.22489256 -0.024713583 0.6848765
-0.2148954 -0.024700737 0.68452042
-0.20490865 -0.024687901 0.68416476
-0.19493227 -0.024675081 0.68380946
-0.18496625 -0.024662266 0.68345439
-0.17501052 -0.024649473 0.68309987
-0.16506517 -0.024636684 0.68274558
-0.15513007 -0.024623921 0.68239164
-0.14520532 -0.024611164 0.68203825
-0.13529085 -0.02459842 0.68168485
-0.12538661 -0.024585685 0.68133217
-0.11549263 -0.024572978 0.68097979
-0.10499159 -0.02455947 0.68060577
-0.094501868 -0.024545994 0.68023217
-0.0883402 -0.026624788 0.68004113
-0.37136829 -0.013762129 0.68994164
-0.36461097 -0.014933021 0.68971705
-0.35447004 -0.014925202 0.68935609
-0.3449724 -0.014917875 0.68901765
-0.33548427 -0.014910558 0.68867981
-0.32537386 -0.014902768 0.6883198
-0.31527397 -0.014894977 0.68795997
-0.3051846 -0.014887196 0.68760061
-0.29510579 -0.014879427 0.68724167
-0.28503752 -0.014871662 0.68688315
-0.27497971 -0.014863912 0.68652511
-0.26493242 -0.01485616 0.6861673
-0.25489548 -0.01484842 0.68580973
-0.24486914 -0.014840689 0.68545276
-0.23485318 -0.014832969 0.68509603
-0.22484766 -0.014825255 0.68473977
-0.21485247 -0.014817545 0.68438375
-0.20486772 -0.014809845 0.68402821
-0.19489332 -0.014802155 0.68367296
-0.1849293 -0.014794474 0.68331814
-0.17497562 -0.014786799 0.68296355
-0.16503225 -0.014779132 0.68260962
-0.15509917 -0.014771474 0.68225574
-0.14517641 -0.014763818 0.68190217
-0.13526389 -0.014756177 0.68154937
-0.12536167 -0.014748544 0.68119675
-0.11546966 -0.014740914 0.68084437
-0.10497074 -0.014732821 0.68047041
-0.095470302 -0.015142755 0.68013787
-0.37313333 -0.004472286 0.68987733
-0.36453754 -0.0049767802 0.68957829
-0.355032 -0.0049743378 0.68923968
-0.34553584 -0.0049718963 0.68890166
-0.33541688 -0.0049692979 0.68854141
-0.3253085 -0.0049667 0.68818152
-0.3152107 -0.0049641044 0.68782192
-0.30512339 -0.004961513 0.68746281
-0.29504669 -0.0049589234 0.68710399
-0.28498033 -0.0049563362 0.68674558
